ply
format ascii 1.0
comment VCGLIB generated
element vertex 573
property float x
property float y
property float z
property float nx
property float ny
property float nz
property uchar red
property uchar green
property uchar blue
property uchar alpha
property float quality
element face 0
property list uchar int vertex_indices
end_header
4.348801 -8.118576 -2.299973 0.06927762 -0.004932018 0.9975852 106 122 97 255 0.951064 
4.371475 -8.160904 -2.302139 0.06252778 -0.01073131 0.9979855 97 111 89 255 0.952285 
4.392471 -8.200119 -2.303299 0.06982539 0.01417146 0.9974586 94 109 89 255 0.890028 
4.411575 -8.235794 -2.303421 0.08697394 0.01929709 0.9960237 72 85 70 255 0.381964 
4.440323 -8.289474 -2.308334 0.05342578 -0.07200599 0.9959723 51 56 49 255 0.20325 
4.468857 -8.342728 -2.313126 0.04109605 -0.09476366 0.9946512 84 89 76 255 0.218387 
4.504776 -8.409775 -2.32164 0.04828337 -0.0742553 0.9960698 72 77 61 255 0.214481 
4.538467 -8.472702 -2.328812 0.05122818 -0.05969371 0.9969014 61 68 53 255 0.218387 
4.569717 -8.531021 -2.33461 0.06522244 -0.07716059 0.9948831 54 60 48 255 0.208377 
4.60759 -8.6017 -2.343613 0.07881614 -0.102117 0.9916452 50 54 45 255 0.21033 
4.650742 -8.682297 -2.355057 0.0350998 0.1733449 0.9842355 39 43 36 255 0.200809 
4.664383 -8.707779 -2.351639 0.07354318 0.3628611 0.9289366 34 37 30 255 0.195193 
4.673569 -8.72493 -2.34581 0.04379506 0.4971565 0.8665549 31 33 27 255 0.19324 
4.679062 -8.735184 -2.337997 0.0562199 0.6634626 0.7460943 32 34 29 255 0.210086 
4.683762 -8.743912 -2.329971 0.1040017 0.8392897 0.5336445 32 33 28 255 0.21912 
4.686295 -8.748672 -2.320877 0.1061523 0.8599251 0.4992601 31 33 28 255 0.223514 
4.688858 -8.753433 -2.311691 0.1429128 0.9223985 0.3588272 32 33 29 255 0.230106 
4.691177 -8.757767 -2.302353 0.1130517 0.9695057 0.217435 32 34 29 255 0.222293 
4.691696 -8.758743 -2.29213 0.1295554 0.9776629 0.1655014 31 32 27 255 0.242802 
4.692886 -8.761002 -2.28215 0.1432801 0.9686421 0.2029866 32 33 28 255 0.238895 
4.694534 -8.764053 -2.272598 0.05262301 0.9874163 0.1491306 32 33 29 255 0.240848 
4.693344 -8.761856 -2.261459 0.0418208 0.9699034 0.2398717 28 29 25 255 0.235966 
4.695297 -8.765518 -2.25206 -0.02266162 0.9341096 0.3562665 33 34 30 255 0.249638 
4.697159 -8.768967 -2.242477 -0.009029098 0.9040046 0.4274274 32 33 29 255 0.248905 
4.702499 -8.778915 -2.234573 0.01324694 0.7645364 0.6444445 39 40 36 255 0.254032 
4.706223 -8.785934 -2.225876 -0.05330372 0.5410026 0.83933 34 35 31 255 0.230838 
4.714035 -8.800491 -2.219101 0.0006610251 0.3626059 0.9319423 33 34 30 255 0.24036 
4.730728 -8.83168 -2.216324 0.04885044 0.05371942 0.9973605 37 38 34 255 0.21912 
4.752945 -8.873123 -2.216171 0.04553922 0.05668138 0.9973532 32 33 30 255 0.181277 
4.772232 -8.909164 -2.214462 0.1502427 0.1793251 0.9722498 9 10 8 255 0.174929 
4.787918 -8.938431 -2.211105 0.195562 0.1376852 0.970978 18 18 17 255 0.186404 
4.817917 -8.994431 -2.214279 0.01177607 0.0493943 0.9987099 11 11 9 255 0.211307 
4.837204 -9.030472 -2.212418 -0.005431414 0.002828872 0.9999813 16 16 15 255 0.169558 
4.861038 -9.074905 -2.21254 0.005615324 -0.03908957 0.99922 16 16 15 255 0.175174 
4.890793 -9.130478 -2.2155 -0.07930192 0.0779374 0.9937993 10 10 10 255 0.17322 
4.904465 -9.156021 -2.210709 -0.01854739 0.03853572 0.9990851 11 11 11 255 0.172 
4.93248 -9.208298 -2.212418 0.004937395 0.03439812 0.999396 13 12 12 255 0.177127 
4.955276 -9.25087 -2.211685 0.02291752 0.06780535 0.9974353 7 7 7 255 0.180789 
4.973129 -9.284195 -2.208664 0.09742026 0.127404 0.9870551 7 7 7 255 0.180301 
4.984543 -9.305527 -2.202713 0.122019 0.09591215 0.9878827 6 6 6 255 0.185183 
5.013016 -9.358658 -2.20433 0.1422376 0.06682491 0.9875743 10 10 10 255 0.197635 
5.047348 -9.422775 -2.208176 0.08073346 0.007091519 0.9967105 9 9 8 255 0.18909 
5.070877 -9.46669 -2.20726 0.08724211 0.1355637 0.9869201 6 6 5 255 0.181521 
5.090195 -9.502792 -2.204422 0.07131639 0.03702231 0.9967664 7 7 6 255 0.188846 
5.11937 -9.557236 -2.205765 0.122577 0.04317551 0.9915195 5 5 5 255 0.170291 
5.150223 -9.614853 -2.207718 0.09325287 0.08136332 0.9923124 5 5 5 255 0.182498 
5.18483 -9.679428 -2.211258 0.03634592 -0.004068474 0.999331 4 4 3 255 0.183963 
5.211197 -9.728683 -2.210892 0.03022898 0.013139 0.9994566 3 3 3 255 0.174441 
5.242416 -9.786972 -2.21257 0.02476483 0.02345277 0.9994182 3 3 3 255 0.183719 
5.270737 -9.839828 -2.212784 0.04319436 0.0195006 0.9988763 2 2 2 255 0.189578 
5.291458 -9.878494 -2.209854 0.03059979 0.06848049 0.9971831 1 1 1 255 0.178836 
5.322586 -9.93663 -2.211136 0.02759038 0.04595474 0.9985625 1 1 1 255 0.180301 
5.337753 -9.964951 -2.205856 0.01789305 0.07207661 0.9972386 1 1 1 255 0.178836 
5.36174 -10.00978 -2.203964 0.04943975 0.1048563 0.9932577 1 1 1 255 0.170291 
5.394028 -10.07002 -2.205399 0.0338648 0.06011668 0.9976168 1 1 1 255 0.190066 
5.419174 -10.11699 -2.203781 0.04625116 0.03443244 0.9983363 1 1 1 255 0.176394 
5.447067 -10.16902 -2.20314 -0.00789627 0.07055505 0.9974766 1 1 1 255 0.167117 
5.469284 -10.21049 -2.200119 -0.09053902 0.09842145 0.9910176 1 1 1 255 0.175906 
5.484818 -10.23952 -2.194351 -0.008575781 0.06099274 0.9981014 1 1 1 255 0.168338 
5.508835 -10.28438 -2.191879 -0.0816839 0.07380957 0.9939215 1 1 1 255 0.171267 
5.532974 -10.32945 -2.189377 -0.03177411 0.05286105 0.9980962 1 1 1 255 0.186892 
5.553055 -10.36693 -2.185135 0.04718683 0.09055866 0.9947726 1 1 1 255 0.178103 
5.587173 -10.43065 -2.186325 0.06108265 0.06421205 0.9960651 1 1 1 255 0.17322 
5.598526 -10.45183 -2.178513 0.01999196 0.1059033 0.9941755 1 1 1 255 0.171267 
5.623032 -10.49757 -2.175735 0.09782223 0.0607605 0.9933474 1 1 1 255 0.180789 
5.653091 -10.5537 -2.175003 0.05530536 0.1458101 0.9877656 1 1 1 255 0.175662 
5.675095 -10.5948 -2.170914 0.009140836 0.1624236 0.9866788 1 1 1 255 0.173709 
5.700516 -10.64223 -2.16832 0.05967888 0.1507755 0.986765 1 1 1 255 0.177127 
5.713577 -10.66661 -2.16066 0.04121239 0.2785125 0.9595479 1 1 1 255 0.186404 
5.743759 -10.72298 -2.1595 -0.06227105 0.2146098 0.9747128 1 1 1 255 0.178836 
5.759293 -10.752 -2.152786 0.03594522 0.1732344 0.9842245 1 1 1 255 0.171267 
5.775528 -10.7823 -2.146225 -0.01307388 0.1481849 0.9888732 1 1 1 255 0.178836 
5.81105 -10.84865 -2.146744 0.01206969 0.1306196 0.9913591 1 1 1 255 0.178103 
5.828537 -10.88127 -2.140488 -0.1162519 0.2930543 0.949002 1 1 1 255 0.185183 
5.84111 -10.90477 -2.132523 -0.1143218 0.3640246 0.9243466 1 1 1 255 0.195926 
5.846909 -10.91554 -2.121872 -0.04075701 0.2521397 0.9668322 1 1 1 255 0.175174 
5.870621 -10.95985 -2.117691 0.1255877 0.219467 0.967503 1 1 1 255 0.185183 
5.902756 -11.01985 -2.11644 -0.02287615 0.1713679 0.9849415 1 1 1 255 0.185916 
5.921951 -11.05568 -2.110397 0.00740178 0.151837 0.9883779 1 1 1 255 0.167605 
3.645859 -6.822372 -2.234268 0.07707769 0.01786431 0.996865 78 87 70 255 0.191531 
3.661514 -6.851639 -2.235458 0.07900498 -0.01760807 0.9967187 57 66 49 255 0.195682 
3.676712 -6.880112 -2.236313 0.08060755 -0.01391494 0.9966488 89 98 81 255 0.183719 
3.69429 -6.913162 -2.238541 0.07631566 -0.006883963 0.9970599 64 71 55 255 0.193973 
3.709305 -6.941238 -2.23912 0.04810136 -0.01664311 0.9987038 64 73 54 255 0.198367 
3.725418 -6.97139 -2.240311 0.04137162 -0.008229932 0.99911 61 70 53 255 0.185183 
3.7444 -7.006912 -2.243149 0.06765796 -0.03568152 0.9970703 65 73 60 255 0.175906 
3.762405 -7.040604 -2.245316 0.04253513 -0.01968765 0.998901 54 62 51 255 0.196902 
3.778641 -7.070999 -2.246353 0.05101716 0.008231466 0.9986638 63 71 60 255 0.18201 
3.796219 -7.103897 -2.248062 0.07119434 -0.02680565 0.9971022 60 69 52 255 0.178836 
3.813004 -7.13533 -2.249283 0.0567409 -0.01288349 0.9983059 61 72 55 255 0.188846 
3.829819 -7.166794 -2.250381 0.06850443 -0.03457192 0.9970516 52 63 47 255 0.204471 
3.850174 -7.20488 -2.253525 0.04712915 0.004326137 0.9988795 52 64 50 255 0.196902 
3.866226 -7.234879 -2.254166 0.05775973 0.01108051 0.998269 110 125 102 255 0.39295 
3.882034 -7.264481 -2.254623 0.05971864 -0.0137857 0.9981201 128 148 120 255 0.261112 
3.899612 -7.297409 -2.255936 0.0516185 -0.0171094 0.9985203 127 151 119 255 0.237675 
3.919571 -7.334732 -2.25856 0.05714861 -0.01472272 0.9982572 136 160 126 255 0.241093 
3.937057 -7.367477 -2.259659 0.06743669 -0.01951749 0.9975327 131 155 119 255 0.229618 
3.956345 -7.40358 -2.261734 0.05723076 -0.005604933 0.9983453 137 161 125 255 0.227909 
3.974197 -7.436966 -2.262894 0.07225063 -0.03082629 0.99691 150 178 138 255 0.208377 
3.993362 -7.472855 -2.264725 0.06373699 -0.01125155 0.9979033 153 184 143 255 0.206424 
4.013657 -7.510635 -2.266983 0.05166955 -0.006281238 0.9986445 141 169 129 255 0.222049 
4.032394 -7.5457 -2.268478 0.05507265 -0.03161434 0.9979817 146 174 136 255 0.222049 
4.052475 -7.583298 -2.270584 0.03091183 -0.03319468 0.9989708 166 198 161 255 0.218387 
4.072403 -7.620743 -2.272537 0.04376155 -0.02746515 0.9986644 149 177 137 255 0.230106 
4.09227 -7.657944 -2.274368 0.03455875 -0.009377806 0.9993587 138 163 125 255 0.242313 
4.112228 -7.695114 -2.276077 0.06088086 -0.0386449 0.9973967 131 155 117 255 0.221317 
4.136002 -7.739639 -2.279892 0.05781346 -0.0257372 0.9979956 132 156 121 255 0.225956 
4.158371 -7.781448 -2.282791 0.05461598 -0.02455502 0.9982055 132 155 122 255 0.244022 
4.179947 -7.821854 -2.285019 0.05091823 -0.03465117 0.9981015 126 147 116 255 0.276005 
4.199661 -7.858719 -2.28627 0.05697966 -0.03493514 0.997764 122 142 112 255 0.234012 
4.222885 -7.902206 -2.289474 0.05973363 -0.02173428 0.9979777 127 147 116 255 0.226688 
4.242935 -7.939713 -2.290756 0.05400357 -0.008136744 0.9985076 131 151 121 255 0.22034 
4.262985 -7.977219 -2.291946 0.06069984 -0.01881376 0.9979788 130 151 120 255 0.239139 
4.286392 -8.021225 -2.294968 0.06044479 -0.01141969 0.9981062 129 150 120 255 0.262089 
4.308334 -8.062271 -2.297012 0.053486 -0.009308209 0.9985253 120 140 112 255 0.700084 
4.330154 -8.102921 -2.298843 0.06297673 -0.00693878 0.9979908 104 121 95 255 0.950088 
4.351425 -8.142746 -2.300339 0.06867758 -0.003688998 0.9976321 101 118 94 255 0.952529 
4.37352 -8.184067 -2.302139 0.05652532 0.003124353 0.9983963 92 108 87 255 0.949111 
4.393814 -8.222061 -2.302933 0.05313724 0.02095727 0.9983673 93 107 88 255 0.920058 
4.415115 -8.261917 -2.304153 0.07944315 -0.02330843 0.9965669 81 94 77 255 0.605112 
4.446793 -8.321243 -2.310806 0.04809246 -0.06948116 0.9964234 69 78 62 255 0.227176 
4.482437 -8.387924 -2.319138 0.04199547 -0.108609 0.9931971 80 86 69 255 0.214481 
4.516403 -8.451492 -2.326553 0.05529351 -0.09153698 0.9942654 75 80 64 255 0.210819 
4.543777 -8.502731 -2.33046 0.05026609 -0.06552359 0.9965842 69 75 62 255 0.208377 
4.577774 -8.56633 -2.33754 0.0700861 -0.08885587 0.9935757 55 59 48 255 0.204471 
4.621841 -8.648788 -2.349747 0.07706494 -0.0835758 0.9935171 44 48 39 255 0.205203 
4.648361 -8.69841 -2.352798 0.06054685 0.2724003 0.9602771 38 41 35 255 0.190066 
4.65831 -8.717026 -2.347397 0.08532539 0.4051068 0.9102792 32 35 29 255 0.207156 
4.664688 -8.728989 -2.339981 0.0389246 0.5710713 0.8199771 29 31 25 255 0.20911 
4.670731 -8.74025 -2.332535 0.0505473 0.7623643 0.645171 30 32 27 255 0.228885 
4.673386 -8.745255 -2.32341 0.04661379 0.8494266 0.5256439 33 34 30 255 0.222049 
4.675919 -8.749985 -2.314285 0.01895848 0.9317878 0.3625078 32 34 29 255 0.222049 
4.678909 -8.7556 -2.305313 0.02334307 0.9476109 0.318573 35 36 31 255 0.237186 
4.677994 -8.754105 -2.29454 0.01049056 0.9747127 0.2232153 29 30 26 255 0.232059 
4.679764 -8.75737 -2.284927 0.04521431 0.9805691 0.1908925 29 30 25 255 0.237919 
4.681717 -8.761063 -2.275436 0.03471397 0.992166 0.1200061 33 34 30 255 0.232792 
4.681686 -8.760971 -2.264877 0.02393974 0.9770234 0.2117834 28 29 25 255 0.238895 
4.684982 -8.767166 -2.256119 0.02287426 0.9611937 0.2749247 32 33 29 255 0.245975 
4.686478 -8.769974 -2.246384 -0.07284092 0.9156802 0.3952518 33 34 30 255 0.273075 
4.687668 -8.772171 -2.236496 0.01973326 0.827417 0.5612413 33 35 30 255 0.253056 
4.694321 -8.784653 -2.229202 -0.02264306 0.5460916 0.8374195 33 35 30 255 0.225223 
4.700638 -8.796494 -2.221756 0.02746877 0.4370485 0.8990184 32 33 29 255 0.227665 
4.710464 -8.814835 -2.215897 0.02367674 0.2272119 0.9735575 39 40 36 255 0.250126 
4.735397 -8.861343 -2.216965 0.0279197 0.05793887 0.9979296 39 40 37 255 0.229129 
4.751724 -8.891891 -2.214127 0.05833398 0.1974973 0.9785663 12 13 11 255 0.182498 
4.763229 -8.913406 -2.208786 0.07453517 0.2566082 0.9636372 12 12 11 255 0.179568 
4.785507 -8.955124 -2.208511 0.1401677 -0.05362213 0.9886747 12 11 10 255 0.202029 
4.81398 -9.008408 -2.210953 0.03413199 -0.008656074 0.9993799 14 13 13 255 0.198123 
4.83696 -9.051407 -2.210739 -0.03184965 -0.00728204 0.9994662 9 9 8 255 0.182498 
4.875809 -9.1241 -2.217697 0.005346964 0.03940311 0.9992091 10 10 9 255 0.186404 
4.891129 -9.152786 -2.213821 -0.06752708 0.1108197 0.9915438 7 7 6 255 0.198123 
4.910538 -9.189072 -2.211685 -0.03408089 -0.002416034 0.9994162 9 9 9 255 0.186892 
4.930923 -9.227249 -2.209946 0.02140233 0.06997401 0.9973192 15 15 14 255 0.188846 
4.951889 -9.266464 -2.208481 0.0133785 0.1393436 0.9901537 14 15 14 255 0.185672 
4.969925 -9.300278 -2.205399 0.04464058 0.1336531 0.9900223 11 11 10 255 0.188357 
4.994308 -9.34584 -2.205154 0.1349579 0.0265315 0.9904961 9 9 8 255 0.1991 
5.021133 -9.396042 -2.206009 0.1117355 -0.01777777 0.993579 7 7 7 255 0.166873 
5.046494 -9.443558 -2.205978 0.009539871 0.06077984 0.9981056 7 7 7 255 0.173709 
5.068527 -9.484726 -2.2043 0.025467 0.1485033 0.988584 7 7 6 255 0.178103 
5.097061 -9.538132 -2.205551 0.0454188 0.007498474 0.9989399 4 4 4 255 0.181521 
5.128189 -9.596451 -2.207596 0.08226177 0.1101994 0.9904995 4 4 4 255 0.193973 
5.147049 -9.631729 -2.20433 0.0935515 0.07635031 0.9926827 5 5 5 255 0.187137 
5.189499 -9.711136 -2.211166 0.0111002 0.01070568 0.9998811 3 3 3 255 0.18201 
5.220535 -9.769241 -2.212875 0.07518225 0.001280487 0.997169 3 3 3 255 0.167605 
5.244827 -9.814713 -2.211502 -0.0172759 0.03751346 0.9991468 2 2 2 255 0.185916 
5.277267 -9.875381 -2.213516 0.01439766 0.07702569 0.9969252 2 2 2 255 0.17322 
5.290268 -9.899734 -2.207321 0.02940483 0.08010224 0.9963529 1 1 1 255 0.187625 
5.326767 -9.968033 -2.2108 -0.01990299 0.07096332 0.9972804 1 1 1 255 0.176394 
5.343155 -9.998734 -2.205856 0.009610282 0.1043504 0.9944941 1 1 1 255 0.16199 
5.36058 -10.03133 -2.201248 0.03563163 0.0252445 0.9990461 1 1 1 255 0.168338 
5.399246 -10.10368 -2.205124 0.0483596 0.04200068 0.9979466 1 1 1 255 0.185916 
5.427963 -10.15742 -2.20491 0.01407529 0.05678339 0.9982873 1 1 1 255 0.170291 
5.45137 -10.20125 -2.202438 -0.01253609 0.07930517 0.9967716 1 1 1 255 0.169314 
5.462906 -10.22285 -2.195206 -0.06052351 0.092463 0.993875 1 1 1 255 0.196414 
5.491653 -10.27663 -2.194687 -0.02871592 0.09646854 0.9949217 1 1 1 255 0.191531 
5.50444 -10.30055 -2.18782 -0.03562826 0.06781123 0.9970618 1 1 1 255 0.175174 
5.533401 -10.35475 -2.18718 -0.0008753395 0.08498521 0.9963818 1 1 1 255 0.168093 
5.556595 -10.39818 -2.184158 0.02768525 0.03187267 0.9991084 1 1 1 255 0.18323 
5.586624 -10.45433 -2.183578 0.00616408 0.07993067 0.9967814 1 1 1 255 0.184451 
5.610489 -10.49904 -2.180618 -0.03470355 0.1153519 0.9927183 1 1 1 255 0.177127 
5.610275 -10.49864 -2.168228 -0.03470355 0.1153519 0.9927183 1 1 1 255 0.190799 
5.655228 -10.58275 -2.173203 0.08737919 0.1493646 0.9849138 1 1 1 255 0.188357 
5.668137 -10.60692 -2.165726 -0.01277513 0.1715397 0.9850944 1 1 1 255 0.190311 
5.693741 -10.6548 -2.16304 0.06329431 0.1501105 0.9866412 1 1 1 255 0.178347 
5.724655 -10.71269 -2.162247 -0.05679274 0.1175852 0.9914376 1 1 1 255 0.190066 
5.741867 -10.74492 -2.156082 -0.01308322 0.1958794 0.9805407 1 1 1 255 0.170047 
5.761124 -10.78093 -2.150833 -0.001065389 0.1659939 0.9861262 1 1 1 255 0.168093 
5.785599 -10.82674 -2.147293 0.09375804 0.08128113 0.9922715 1 1 1 255 0.163699 
5.811203 -10.87468 -2.143997 0.02741207 0.1881236 0.9817628 1 1 1 255 0.171511 
5.822769 -10.89629 -2.135544 -0.1237634 0.3048994 0.9443088 1 1 1 255 0.174441 
5.83226 -10.91411 -2.126266 -0.2229572 0.2694987 0.9368353 1 1 1 255 0.19202 
5.853104 -10.95308 -2.121201 0.0318413 0.3092308 0.9504538 1 1 1 255 0.180301 
5.858749 -10.96367 -2.110336 0.07659619 0.2288614 0.9704409 1 1 1 255 0.172 
5.906143 -11.05235 -2.114639 -0.02132919 0.1441734 0.9893225 1 1 1 255 0.160525 
5.922226 -11.08247 -2.107468 -0.009830474 0.1806027 0.983507 1 1 1 255 0.177127 
3.636673 -6.821609 -2.233963 0.08269857 0.03673742 0.9958973 57 68 51 255 0.182498 
3.650742 -6.847977 -2.234268 0.07750988 -0.01024004 0.9969391 60 69 52 255 0.188357 
3.667679 -6.879776 -2.236191 0.06690011 -0.002244745 0.9977572 57 66 49 255 0.178103 
3.684189 -6.910751 -2.237808 0.073741 -0.01793143 0.9971162 49 56 40 255 0.188846 
3.701248 -6.942764 -2.239578 0.05967099 -0.01784425 0.9980586 58 66 51 255 0.188357 
3.718124 -6.97438 -2.241226 0.03727943 -0.01150381 0.9992387 63 71 58 255 0.190311 
3.736404 -7.008713 -2.243698 0.06903968 -0.02961983 0.9971741 55 63 50 255 0.172 
3.752609 -7.039078 -2.244888 0.04664494 -0.001953421 0.9989096 61 67 55 255 0.191531 
3.770035 -7.071762 -2.246658 0.05732596 0.002558041 0.9983522 53 60 44 255 0.187625 
3.786118 -7.101944 -2.247574 0.06684517 -0.02390477 0.997477 56 65 48 255 0.175662 
3.804092 -7.135696 -2.249527 0.06817682 -0.01304827 0.9975879 97 110 92 255 0.184695 
3.821548 -7.168411 -2.251083 0.07014351 -0.02497877 0.9972242 52 58 44 255 0.193973 
3.839218 -7.201553 -2.25264 0.03989499 0.0112039 0.9991411 73 81 68 255 0.185183 
3.855331 -7.231796 -2.253189 0.05692271 0.02831204 0.9979771 127 140 120 255 0.398077 
3.872452 -7.263931 -2.254349 0.05631318 -0.02009855 0.9982109 124 143 113 255 0.43592 
3.890701 -7.298111 -2.256088 0.06118179 -0.01728402 0.997977 120 141 110 255 0.23328 
3.908035 -7.330673 -2.257217 0.05693739 -0.009592695 0.9983317 126 150 114 255 0.229129 
3.926498 -7.36528 -2.259079 0.06454063 -0.01621185 0.9977834 133 159 120 255 0.22327 
3.945969 -7.40181 -2.261276 0.05411546 -0.005509531 0.9985195 125 151 114 255 0.227176 
3.963669 -7.435013 -2.262314 0.06090218 -0.01774444 0.997986 158 186 148 255 0.211307 
3.98436 -7.473831 -2.265121 0.06248073 -0.01285864 0.9979633 148 185 142 255 0.200809 
4.003281 -7.509354 -2.266769 0.04829841 -0.01294267 0.9987491 160 192 151 255 0.217655 
4.023422 -7.546921 -2.268967 0.0607309 -0.04105851 0.9973094 144 172 132 255 0.208865 
4.0439 -7.585342 -2.271317 0.04312227 -0.02351301 0.9987931 161 187 148 255 0.20911 
4.063095 -7.621323 -2.272842 0.03933981 -0.03357887 0.9986615 156 184 144 255 0.226688 
4.081589 -7.656052 -2.273911 0.03614783 -0.01522966 0.9992304 145 171 132 255 0.235233 
4.103226 -7.696609 -2.276657 0.06681974 -0.04087564 0.9969274 130 155 117 255 0.249149 
4.125992 -7.739517 -2.279953 0.06937551 -0.0243717 0.9972929 136 161 126 255 0.232059 
4.146194 -7.77739 -2.281723 0.05888035 -0.02709123 0.9978974 130 155 121 255 0.237919 
4.169266 -7.82048 -2.284836 0.06172078 -0.0289514 0.9976735 128 153 119 255 0.243534 
4.188889 -7.857315 -2.286179 0.04509869 -0.02168787 0.9987471 118 140 109 255 0.242802 
4.211807 -7.900284 -2.289047 0.06142157 -0.01906141 0.9979299 129 146 115 255 0.235721 
4.232681 -7.939468 -2.290756 0.05701113 -0.008469325 0.9983376 138 155 125 255 0.214481 
4.252365 -7.976364 -2.291763 0.05612804 -0.01570767 0.9983001 144 162 132 255 0.241581 
4.276138 -8.020981 -2.294907 0.07034221 -0.0233326 0.99725 127 150 119 255 0.271122 
4.296371 -8.058945 -2.296066 0.05429156 -0.0001043703 0.9985251 126 146 117 255 0.747936 
4.317734 -8.099014 -2.297714 0.06183441 -0.005606728 0.9980707 109 128 101 255 0.95375 
4.339767 -8.140305 -2.299728 0.06859528 -0.006239655 0.9976251 108 124 100 255 0.953262 
4.361649 -8.181412 -2.301651 0.0606012 0.008721823 0.9981239 94 108 90 255 0.954238 
4.381607 -8.218796 -2.3022 0.0532118 0.0145571 0.9984772 91 103 86 255 0.954971 
4.401413 -8.255997 -2.302597 0.08011565 0.004393498 0.9967759 94 110 88 255 0.839002 
4.434952 -8.318893 -2.310226 0.04771738 -0.07999998 0.9956521 88 99 84 255 0.217899 
4.470749 -8.386002 -2.318802 0.04158075 -0.1030314 0.9938086 74 81 65 255 0.225223 
4.501083 -8.442917 -2.324326 0.05486347 -0.08216629 0.9951074 74 79 63 255 0.217899 
4.531082 -8.499191 -2.329697 0.04327825 -0.06189233 0.9971441 65 70 57 255 0.203494 
4.56456 -8.561966 -2.336655 0.03998626 -0.05948614 0.9974279 56 61 49 255 0.202029 
4.609085 -8.645523 -2.349075 0.07622261 -0.08898629 0.993112 43 47 38 255 0.194461 
4.636551 -8.697067 -2.352585 0.05335458 0.2760023 0.959675 35 38 32 255 0.192508 
4.645828 -8.714432 -2.346848 0.07721352 0.4000739 0.9132245 33 36 30 255 0.211307 
4.653976 -8.729721 -2.3405 0.06426855 0.5433262 0.8370581 35 37 32 255 0.209598 
4.658859 -8.738907 -2.332504 0.02195783 0.7208473 0.692746 36 37 32 255 0.224735 
4.662766 -8.746201 -2.32399 -0.05132019 0.8486761 0.5264173 29 31 26 255 0.227665 
4.664963 -8.750381 -2.31456 -0.03655412 0.89456 0.4454506 30 31 27 255 0.229129 
4.668411 -8.756821 -2.305801 -0.03315468 0.963717 0.2648592 33 34 29 255 0.236698 
4.669266 -8.758438 -2.295761 -0.01850509 0.9888643 0.147665 31 32 28 255 0.228885 
4.67012 -8.760025 -2.285721 -0.03313255 0.9692338 0.2439021 28 29 25 255 0.231571 
4.670944 -8.761612 -2.275772 -0.06423522 0.9781916 0.1975223 31 32 27 255 0.232059 
4.671127 -8.761917 -2.265488 -0.02761528 0.982814 0.1825218 29 30 26 255 0.246464 
4.672745 -8.764969 -2.255844 0.01194656 0.9490019 0.3150441 28 29 25 255 0.237919 
4.67482 -8.768845 -2.246292 8.105116e-06 0.914025 0.405658 30 32 28 255 0.250126 
4.677994 -8.774826 -2.237381 -0.02460417 0.757049 0.6528947 38 40 35 255 0.248417 
4.681625 -8.781631 -2.228745 0.1249451 0.6160691 0.7777196 42 43 39 255 0.246464 
4.691422 -8.799973 -2.222946 -0.01448429 0.3453111 0.9383765 38 39 35 255 0.227909 
4.698502 -8.813309 -2.215805 0.01382823 0.2858713 0.9581682 39 41 37 255 0.249149 
4.721756 -8.856918 -2.216171 0.03724155 0.07765023 0.9962849 38 40 36 255 0.21326 
4.741196 -8.893387 -2.214706 0.03520689 0.2084088 0.977408 21 22 19 255 0.177127 
4.752426 -8.914474 -2.209457 0.04645837 0.1828547 0.9820417 16 16 15 255 0.168093 
4.784225 -8.974106 -2.213516 0.09027933 -0.03494998 0.995303 13 12 12 255 0.172488 
4.804672 -9.012497 -2.212265 0.1013618 -0.01005164 0.9947988 15 14 13 255 0.177127 
4.839859 -9.078476 -2.217606 -0.03591197 -0.05080462 0.9980628 9 9 8 255 0.163699 
4.853592 -9.104202 -2.213181 -0.04713839 -0.00615838 0.9988694 16 16 15 255 0.175662 
4.872269 -9.139236 -2.210892 -0.02061613 0.09193709 0.9955514 13 14 12 255 0.178347 
4.904312 -9.199387 -2.21434 -0.008153942 0.15881 0.9872755 11 11 10 255 0.196902 
4.919266 -9.227463 -2.210251 0.08868009 0.24875 0.9644995 14 14 14 255 0.179324 
4.940201 -9.266708 -2.208694 -0.0744974 0.1676878 0.9830214 14 14 14 255 0.180056 
4.953842 -9.292282 -2.203781 0.05410896 0.1905474 0.9801857 8 8 8 255 0.185916 
4.976578 -9.334915 -2.202866 -0.0685921 -0.008726669 0.9976066 8 8 7 255 0.190799 
4.990982 -9.361954 -2.198288 0.09411995 0.01594063 0.9954332 9 9 9 255 0.199588 
5.039261 -9.452499 -2.208359 0.001832293 0.07032146 0.9975227 6 6 6 255 0.179324 
5.053207 -9.478714 -2.203384 0.01216707 0.1023615 0.9946728 6 6 6 255 0.176883 
5.085556 -9.539352 -2.206131 0.05968408 0.003133928 0.9982124 6 6 5 255 0.152468 
5.108536 -9.582474 -2.204788 0.1135769 0.04915741 0.9923124 4 4 4 255 0.195193 
5.130936 -9.624496 -2.203201 0.05217386 0.1236873 0.9909487 5 5 5 255 0.186404 
5.17543 -9.707993 -2.210861 0.04950554 0.0008963532 0.9987735 4 4 4 255 0.188846 
5.202042 -9.757889 -2.210709 0.1039149 0.02657935 0.994231 3 3 3 255 0.170779 
5.238571 -9.826401 -2.214676 -0.01402451 0.02535241 0.9995802 2 2 2 255 0.182742 
5.246231 -9.840805 -2.206314 -0.01362944 0.04419815 0.9989299 2 2 2 255 0.175662 
5.284592 -9.912735 -2.210678 0.04900918 0.04753827 0.9976664 1 1 1 255 0.168093 
5.314377 -9.968582 -2.211411 -0.005570708 0.07641514 0.9970605 1 1 1 255 0.172488 
5.334671 -10.0067 -2.208084 0.01256025 0.117535 0.9929893 1 1 1 255 0.170291 
5.360092 -10.05434 -2.20668 0.05783992 -0.007346719 0.9982989 1 1 1 255 0.178103 
5.383194 -10.09773 -2.204422 0.03752709 0.07220992 0.9966832 1 1 1 255 0.18201 
5.41246 -10.1526 -2.204269 0.01143713 0.0448632 0.9989277 1 1 1 255 0.177127 
5.431534 -10.1884 -2.200058 0.04568275 0.1011122 0.9938257 1 1 1 255 0.187137 
5.457169 -10.23647 -2.198532 -0.04162223 0.08677927 0.9953578 1 1 1 255 0.170047 
5.476486 -10.27272 -2.194138 -0.01959556 0.08789404 0.995937 1 1 1 255 0.181521 
5.501877 -10.32039 -2.192337 0.007894338 0.03910514 0.9992039 1 1 1 255 0.175906 
5.51973 -10.35384 -2.187485 -0.04152586 0.1167822 0.992289 1 1 1 255 0.175174 
5.534317 -10.38121 -2.181015 -0.0006196389 0.03197267 0.9994886 1 1 1 255 0.176394 
5.562881 -10.4348 -2.180038 0.0127843 0.03127444 0.9994291 1 1 1 255 0.200809 
5.594986 -10.49501 -2.180313 -0.1107645 0.3108487 0.9439833 1 1 1 255 0.192508 
5.598038 -10.50075 -2.169205 -0.1035479 0.2999368 0.9483226 1 1 1 255 0.18909 
5.631607 -10.56371 -2.169846 0.1298613 0.09614199 0.9868601 1 1 1 255 0.186892 
5.65657 -10.61055 -2.167068 0.002617928 0.2018266 0.9794178 1 1 1 255 0.180301 
5.683701 -10.66148 -2.164871 0.07304879 0.05048704 0.9960497 1 1 1 255 0.193973 
5.713333 -10.71703 -2.163712 -0.04614925 0.187947 0.9810944 1 1 1 255 0.175662 
5.724503 -10.73802 -2.155411 -0.1153262 0.2341716 0.9653308 1 1 1 255 0.180789 
5.746689 -10.77962 -2.151047 0.01111696 0.1501828 0.9885957 1 1 1 255 0.17322 
5.766586 -10.81694 -2.145981 0.04920159 0.1289093 0.9904351 1 1 1 255 0.181521 
5.792709 -10.86595 -2.142899 0.1139715 0.1992868 0.973291 1 1 1 255 0.180301 
5.811813 -10.90178 -2.137344 -0.1147779 0.2866557 0.9511333 1 1 1 255 0.169314 
5.824142 -10.92491 -2.129013 -0.2260931 0.2640973 0.9376217 1 1 1 255 0.178836 
5.835678 -10.94655 -2.120346 -0.2298497 0.2376972 0.9437527 1 1 1 255 0.178836 
5.843918 -10.96199 -2.110672 -0.1151515 0.2194011 0.9688154 1 1 1 255 0.176883 
5.888596 -11.04585 -2.113937 -0.01129814 0.1489003 0.9887877 1 1 1 255 0.170779 
5.903763 -11.0743 -2.106369 -0.01698536 0.1397596 0.9900398 1 1 1 255 0.170291 
3.617142 -6.801529 -2.232956 0.07785832 0.007560908 0.9969358 73 79 67 255 0.18909 
3.632065 -6.829605 -2.23378 0.0693009 -0.006629882 0.9975738 68 79 62 255 0.185183 
3.648178 -6.85994 -2.235336 0.08482688 -0.02613731 0.9960529 44 53 36 255 0.190311 
3.663437 -6.888626 -2.236252 0.07981747 -0.01334466 0.9967203 64 73 56 255 0.191531 
3.679276 -6.918381 -2.237411 0.07522923 -0.01239257 0.9970893 72 79 63 255 0.195926 
3.6978 -6.953079 -2.240067 0.06577383 -0.01737135 0.9976833 74 78 64 255 0.203494 
3.713852 -6.983261 -2.241257 0.04612896 -0.0145598 0.9988294 64 71 53 255 0.185672 
3.729813 -7.01326 -2.242294 0.07841492 -0.05654539 0.995316 56 65 48 255 0.19324 
3.747635 -7.046768 -2.2444 0.04886679 0.005397268 0.9987907 57 65 50 255 0.182742 
3.763351 -7.07634 -2.245163 0.05811108 0.01549902 0.9981898 51 60 43 255 0.183719 
3.780258 -7.108261 -2.246597 0.06368369 -0.02153932 0.9977376 60 69 52 255 0.180301 
3.799637 -7.14473 -2.249405 0.06513629 -0.01488722 0.9977654 77 86 69 255 0.180789 
3.816483 -7.176407 -2.250626 0.07718229 -0.03451784 0.9964194 61 68 52 255 0.19202 
3.83345 -7.208298 -2.251846 0.04425229 0.02360032 0.9987416 60 68 53 255 0.206912 
3.849106 -7.237747 -2.252213 0.05448422 0.01108325 0.9984532 119 132 112 255 0.356085 
3.867355 -7.271927 -2.253952 0.06546803 -0.02601826 0.9975154 130 154 118 255 0.252079 
3.885788 -7.306564 -2.255722 0.06575882 -0.01083157 0.9977767 122 146 112 255 0.245975 
3.904007 -7.340805 -2.25737 0.05995521 -0.001579545 0.9981998 137 163 126 255 0.234501 
3.92308 -7.376724 -2.259445 0.06516255 -0.02847894 0.9974682 132 160 120 255 0.236454 
3.941299 -7.410965 -2.260971 0.05743528 -0.00345204 0.9983433 134 160 121 255 0.204471 
3.96077 -7.447739 -2.263199 0.07070605 -0.02614195 0.9971546 156 182 143 255 0.205936 
3.979446 -7.482834 -2.264786 0.06159593 -0.02153184 0.9978689 153 185 146 255 0.217899 
3.998886 -7.519424 -2.266739 0.04829842 -0.01294269 0.9987491 136 164 126 255 0.210086 
4.018234 -7.555771 -2.2686 0.06073092 -0.0410586 0.9973094 158 184 145 255 0.199588 
4.039139 -7.595108 -2.271133 0.04858121 -0.01887804 0.9986409 148 174 135 255 0.213504 
4.05867 -7.631668 -2.272842 0.03708932 -0.03626138 0.9986538 123 151 111 255 0.213993 
4.077377 -7.666824 -2.274033 0.03042432 -0.0189621 0.9993572 125 153 113 255 0.234501 
4.09819 -7.705948 -2.276321 0.05857186 -0.05217716 0.9969187 136 164 125 255 0.264042 
4.121109 -7.749069 -2.279678 0.06937551 -0.02437169 0.9972929 129 155 117 255 0.23328 
4.143265 -7.790726 -2.282578 0.05889512 -0.02291091 0.9980013 132 155 122 255 0.237919 
4.164474 -7.830765 -2.284775 0.05973483 -0.02412381 0.9979228 135 157 125 255 0.245975 
4.185532 -7.870377 -2.286819 0.05784312 -0.02734874 0.997951 120 144 112 255 0.236454 
4.206131 -7.909134 -2.288589 0.05901182 -0.01294758 0.9981733 121 141 109 255 0.247684 
4.227493 -7.949142 -2.290543 0.05701113 -0.008469314 0.9983376 127 143 114 255 0.232792 
4.24791 -7.987503 -2.291946 0.06217352 -0.017216 0.9979169 144 163 133 255 0.22327 
4.269577 -8.028244 -2.293808 0.07034221 -0.02333254 0.99725 123 149 118 255 0.259892 
4.290665 -8.067886 -2.295425 0.05429156 -0.0001043851 0.9985251 121 141 107 255 0.745983 
4.312759 -8.109421 -2.297501 0.06127683 -0.004948454 0.9981086 106 123 96 255 0.951553 
4.333054 -8.147629 -2.298508 0.06523963 -0.02073863 0.9976541 103 119 95 255 0.953506 
4.35585 -8.190475 -2.300735 0.0606012 0.008721823 0.9981239 95 110 90 255 0.910048 
4.377029 -8.230331 -2.302261 0.04602406 0.02017073 0.9987367 90 103 84 255 0.954238 
4.398483 -8.270676 -2.303543 0.07034174 -0.05097129 0.9962199 99 114 93 255 0.663951 
4.432297 -8.334244 -2.311234 0.04769392 -0.0872011 0.9950484 84 95 78 255 0.205692 
4.467484 -8.400375 -2.319504 0.03266111 -0.08845997 0.9955442 73 80 64 255 0.216922 
4.499527 -8.460648 -2.326065 0.05025984 -0.08159077 0.9953979 73 78 62 255 0.210819 
4.528915 -8.515915 -2.330978 0.04799072 -0.0788803 0.9957283 64 68 55 255 0.217655 
4.561447 -8.577072 -2.337418 0.04200028 -0.0553292 0.9975845 54 59 47 255 0.208377 
4.609024 -8.66655 -2.351425 0.06369761 -0.02064409 0.9977557 45 48 40 255 0.186892 
4.628983 -8.704056 -2.351181 0.04200728 0.3650151 0.9300535 32 35 28 255 0.197635 
4.636307 -8.71788 -2.344467 0.06943833 0.4579946 0.8862388 34 36 30 255 0.207156 
4.643875 -8.732101 -2.337936 0.0756304 0.5746019 0.8149312 31 33 27 255 0.200076 
4.649551 -8.742752 -2.330246 0.07470199 0.7829445 0.6175902 31 33 28 255 0.224491 
4.652328 -8.747971 -2.321121 0.09013171 0.8900285 0.4469066 35 36 31 255 0.231571 
4.654984 -8.752945 -2.312057 0.1456378 0.938401 0.3133581 32 34 29 255 0.225711 
4.656845 -8.756454 -2.302536 0.1647525 0.9615283 0.219818 32 33 29 255 0.234012 
4.656601 -8.756027 -2.291733 0.1590304 0.969811 0.1848677 30 31 27 255 0.236454 
4.657761 -8.758224 -2.281937 0.1334556 0.9611363 0.2416749 34 35 31 255 0.295048 
4.660629 -8.763626 -2.272812 0.07524576 0.9758248 0.2051927 33 34 29 255 0.227665 
4.660812 -8.763931 -2.262527 0.07695942 0.9856372 0.1503216 28 29 25 255 0.244022 
4.661758 -8.765701 -2.252548 0.08742671 0.9277037 0.3629358 29 30 26 255 0.226444 
4.664688 -8.771255 -2.243607 0.06618846 0.8781442 0.473795 35 37 33 255 0.239628 
4.667526 -8.776596 -2.234512 -0.03582799 0.7756307 0.6301693 37 39 34 255 0.234745 
4.672379 -8.78569 -2.226456 0.01720101 0.5946814 0.8037775 36 38 33 255 0.23328 
4.678116 -8.796494 -2.218735 0.06991393 0.3870262 0.9194144 37 39 35 255 0.264042 
4.691788 -8.82225 -2.214737 0.005102315 0.1432358 0.9896755 40 42 38 255 0.221561 
4.715805 -8.867355 -2.215439 0.06713111 0.1160731 0.9909695 39 41 37 255 0.206424 
4.735062 -8.90361 -2.214005 0.03794734 0.2116397 0.9766108 11 11 9 255 0.174929 
4.742599 -8.917801 -2.206863 0.01121913 0.1893535 0.981845 13 13 12 255 0.178347 
4.759445 -8.949448 -2.204086 0.05033857 -0.04552967 0.9976939 15 15 14 255 0.201541 
4.807968 -9.040695 -2.215927 0.08038143 0.02745138 0.9963862 11 11 10 255 0.169558 
4.821121 -9.065414 -2.211227 0.01636429 -0.002489709 0.999863 13 13 12 255 0.178347 
4.851974 -9.123398 -2.214554 0.005136551 0.0666687 0.997762 14 14 13 255 0.180789 
4.866013 -9.149826 -2.210129 0.00474285 0.1229546 0.992401 10 10 9 255 0.181277 
4.894394 -9.203232 -2.212051 -0.03350341 0.1570651 0.9870198 10 10 9 255 0.188846 
4.906998 -9.226883 -2.206894 0.02006256 0.2354193 0.9716868 13 12 12 255 0.187137 
4.93541 -9.280319 -2.208542 -0.02673512 0.1921469 0.981002 9 8 8 255 0.175906 
4.946884 -9.301895 -2.202682 0.02430872 0.05156894 0.9983736 9 9 8 255 0.187625 
4.973709 -9.352371 -2.203568 -0.06017345 -0.03481474 0.9975806 7 7 7 255 0.179568 
5.003494 -9.408371 -2.205643 0.03774966 0.02110187 0.9990644 6 6 6 255 0.178836 
5.032242 -9.462448 -2.207138 -0.04692124 0.1190163 0.991783 5 5 5 255 0.187137 
5.048325 -9.492661 -2.203232 0.02988038 0.09411825 0.9951125 7 7 7 255 0.190066 
5.076401 -9.545486 -2.204239 0.0533184 0.00926604 0.9985346 5 5 5 255 0.168093 
5.105545 -9.600235 -2.205551 0.08064104 0.05080139 0.9954478 4 4 4 255 0.182742 
5.125443 -9.637711 -2.202713 0.06194784 0.04978968 0.9968368 4 4 4 255 0.176394 
5.170547 -9.722488 -2.210648 0.05101755 0.02915203 0.9982722 4 4 4 255 0.18201 
5.190231 -9.759537 -2.207474 0.06332173 0.03893747 0.9972333 2 2 2 255 0.178103 
5.229599 -9.833572 -2.212631 -0.02291241 0.05045442 0.9984635 2 2 2 255 0.172732 
5.254593 -9.880569 -2.211594 0.03991963 0.04904267 0.9979987 2 2 2 255 0.185183 
5.275314 -9.91954 -2.208633 0.05716857 0.05177009 0.9970214 2 2 2 255 0.185916 
5.304916 -9.975204 -2.209305 0.06225941 0.07359055 0.9953433 1 1 1 255 0.183719 
5.324966 -10.01292 -2.205887 -0.003417985 0.09281799 0.9956772 1 1 1 255 0.173953 
5.354141 -10.06776 -2.206131 0.0414076 0.002954575 0.999138 1 1 1 255 0.170779 
5.374649 -10.10634 -2.202713 0.02038655 0.03844381 0.9990528 1 1 1 255 0.178347 
5.406631 -10.16649 -2.203964 0.01948824 0.09307797 0.9954681 1 1 1 255 0.170291 
5.425125 -10.20125 -2.199509 0.0474023 0.1234075 0.9912233 1 1 1 255 0.170291 
5.451981 -10.25172 -2.198105 -0.05417672 0.04657785 0.9974445 1 1 1 255 0.174929 
5.471237 -10.28798 -2.193802 -0.03697337 0.1435221 0.9889562 1 1 1 255 0.175906 
5.492538 -10.32802 -2.190323 0.005121983 0.05144422 0.9986628 1 1 1 255 0.158328 
5.510239 -10.36131 -2.185226 -0.07132292 0.1414731 0.9873695 1 1 1 255 0.166384 
5.535965 -10.40965 -2.183334 -0.003665336 0.03095876 0.999514 1 1 1 255 0.179568 
5.567398 -10.46883 -2.183456 -0.0180538 0.03087909 0.9993601 1 1 1 255 0.176883 
5.587357 -10.50633 -2.179092 -0.1035479 0.2999368 0.9483226 1 1 1 255 0.178347 
5.605545 -10.54051 -2.173752 0.1133008 0.169206 0.9790466 1 1 1 255 0.165652 
5.626511 -10.57994 -2.169601 0.1092025 0.0862022 0.9902747 1 1 1 255 0.174929 
5.648178 -10.62071 -2.165421 -0.01801515 0.2113657 0.9772411 1 1 1 255 0.202518 
5.670303 -10.66228 -2.161453 0.0657752 0.07331313 0.9951376 1 1 1 255 0.178836 
5.706955 -10.73125 -2.162888 -0.0589147 0.1648142 0.9845635 1 1 1 255 0.184695 
5.712936 -10.74251 -2.152603 -0.1153262 0.2341716 0.9653308 1 1 1 255 0.181277 
5.736771 -10.78728 -2.148972 0.03110338 0.1525367 0.9878083 1 1 1 255 0.170047 
5.75322 -10.81825 -2.142502 0.07990334 0.1517627 0.985182 1 1 1 255 0.188113 
5.778183 -10.86516 -2.139114 0.1304005 0.1921181 0.9726697 1 1 1 255 0.17322 
5.800522 -10.90718 -2.13475 -0.01745466 0.2161204 0.9762107 1 1 1 255 0.177615 
5.818375 -10.94072 -2.128464 -0.2195242 0.2415422 0.9452336 1 1 1 255 0.178836 
5.823868 -10.9511 -2.117722 -0.1696645 0.3210723 0.9317331 1 1 1 255 0.191287 
5.846909 -10.9944 -2.113266 -0.0890288 0.1103293 0.9898996 1 1 1 255 0.177615 
5.877853 -11.05263 -2.111404 0.02677916 0.1792138 0.9834456 1 1 1 255 0.167117 
3.615494 -6.814835 -2.231033 0.07288121 0.03149224 0.9968433 57 65 50 255 0.194461 
3.629654 -6.841476 -2.231277 0.0732163 -0.007214303 0.99729 53 62 45 255 0.178836 
3.648056 -6.876175 -2.234238 0.05688128 -0.00595259 0.9983632 63 74 58 255 0.186892 
3.665146 -6.908432 -2.236252 0.06393191 -0.01888647 0.9977756 71 80 63 255 0.184695 
3.683456 -6.942947 -2.238998 0.06655844 -0.02125013 0.9975562 62 69 53 255 0.195193 
3.698593 -6.971481 -2.23967 0.05555627 -0.01010316 0.9984044 72 81 62 255 0.177615 
3.715073 -7.002487 -2.241074 0.07599989 -0.01104748 0.9970466 58 67 50 255 0.172 
3.736496 -7.042892 -2.245407 0.06155454 -0.02463194 0.9977998 82 93 76 255 0.179568 
3.750443 -7.069168 -2.245132 0.05779031 0.006549831 0.9983073 64 75 58 255 0.182742 
3.766708 -7.099808 -2.24614 0.07382835 -0.011852 0.9972005 55 66 49 255 0.191531 
3.783066 -7.130661 -2.247269 0.07400167 -0.0193055 0.9970713 62 70 57 255 0.181521 
3.800858 -7.16423 -2.2491 0.04682321 -0.0086852 0.9988654 56 65 48 255 0.185916 
3.820786 -7.201767 -2.252121 0.06555627 -0.004377389 0.9978393 52 59 43 255 0.177127 
3.835617 -7.229752 -2.25206 0.04586117 0.02132793 0.9987202 88 99 83 255 0.24036 
3.850906 -7.25856 -2.252182 0.07827567 -0.001458808 0.9969307 124 144 117 255 0.339971 
3.870956 -7.296341 -2.255051 0.07450666 -0.005154614 0.9972072 115 141 104 255 0.231571 
3.88768 -7.327866 -2.255875 0.07267159 -0.008261489 0.9973218 133 159 122 255 0.231571 
3.906082 -7.362534 -2.257584 0.06690347 -0.01852128 0.9975876 130 158 120 255 0.234501 
3.925278 -7.398727 -2.259537 0.06046498 -0.01625673 0.9980379 133 154 121 255 0.225223 
3.942581 -7.43132 -2.260483 0.05163945 -0.02056265 0.9984541 156 181 142 255 0.202029 
3.962509 -7.468948 -2.262924 0.06555958 -0.01712166 0.9977018 161 193 152 255 0.210086 
3.983139 -7.507828 -2.265518 0.05714158 -0.01133587 0.9983017 145 175 137 255 0.217899 
4.001999 -7.543381 -2.267197 0.05887451 -0.02771196 0.9978808 133 161 123 255 0.23328 
4.02327 -7.583267 -2.270096 0.04750984 -0.02392506 0.9985842 155 181 142 255 0.212772 
4.042038 -7.618637 -2.271439 0.05050039 -0.02345756 0.9984486 148 179 138 255 0.224002 
4.063339 -7.658829 -2.274155 0.03648074 -0.02083381 0.9991172 148 179 138 255 0.21033 
4.08168 -7.693375 -2.275101 0.0368413 -0.03052641 0.9988548 138 163 125 255 0.231327 
4.104233 -7.735886 -2.278305 0.06308831 -0.02800918 0.9976149 140 165 128 255 0.230106 
4.12471 -7.774673 -2.28035 0.06833557 -0.02651936 0.9973099 129 154 120 255 0.230106 
4.146378 -7.815506 -2.282883 0.06158313 -0.02194752 0.9978606 125 148 115 255 0.242069 
4.168259 -7.856552 -2.285385 0.05415355 -0.01812988 0.998368 123 146 114 255 0.264042 
4.189163 -7.895981 -2.287338 0.05917212 -0.01921363 0.9980629 122 143 113 255 0.251102 
4.211075 -7.937271 -2.289719 0.0550857 -0.01172386 0.9984128 123 141 113 255 0.297002 
4.230331 -7.973587 -2.290573 0.03899239 -0.01236919 0.9991629 129 146 117 255 0.235233 
4.252365 -8.015121 -2.292862 0.05923552 -0.01248703 0.998166 132 153 123 255 0.290898 
4.276077 -8.059799 -2.295944 0.05788061 -0.01359065 0.998231 122 148 117 255 0.674937 
4.29512 -8.095718 -2.296432 0.05578055 -0.01117336 0.9983805 107 126 96 255 0.952041 
4.316086 -8.135208 -2.297836 0.0608428 -0.0134394 0.9980569 100 117 91 255 0.953017 
4.339584 -8.17955 -2.300369 0.06084288 -0.009675791 0.9981005 102 117 96 255 0.953506 
4.359756 -8.217575 -2.301254 0.05198239 0.001697277 0.9986466 94 109 88 255 0.952285 
4.379196 -8.254166 -2.301498 0.05921496 0.01031383 0.998192 99 113 92 255 0.850965 
4.410477 -8.313156 -2.307968 0.05542643 -0.09099706 0.9943075 105 120 98 255 0.222782 
4.446579 -8.38118 -2.316879 0.04184398 -0.1130847 0.9927039 70 78 62 255 0.215946 
4.477097 -8.438736 -2.322769 0.04250985 -0.07999855 0.9958881 74 79 64 255 0.219608 
4.508896 -8.498642 -2.329056 0.0394293 -0.07167064 0.9966488 59 64 49 255 0.215702 
4.540787 -8.558762 -2.335281 0.04235195 -0.0561118 0.9975258 62 66 55 255 0.20032 
4.578049 -8.629013 -2.34404 0.08955911 -0.1140531 0.9894297 53 57 47 255 0.193729 
4.612961 -8.694809 -2.351578 0.1108244 0.2032164 0.9728417 40 42 36 255 0.207645 
4.622421 -8.712631 -2.345993 0.05911922 0.4035777 0.9130334 35 37 31 255 0.207645 
4.630417 -8.727707 -2.339615 0.06859854 0.5254719 0.848041 33 35 30 255 0.217166 
4.636642 -8.739456 -2.33223 0.1161612 0.7611568 0.6380807 31 32 27 255 0.213504 
4.639267 -8.744431 -2.323196 0.05226288 0.8690986 0.4918701 33 35 30 255 0.228397 
4.641586 -8.748795 -2.313889 0.02921991 0.9422061 0.3337573 34 35 30 255 0.220829 
4.643112 -8.751663 -2.304214 0.07783815 0.963659 0.2555438 32 33 29 255 0.235966 
4.644547 -8.754349 -2.294388 0.04352823 0.9797409 0.1954818 30 31 27 255 0.227909 
4.646042 -8.757187 -2.284775 0.06203869 0.9587986 0.2772301 32 33 29 255 0.224491 
4.647446 -8.759842 -2.274948 0.06460612 0.9669143 0.2467852 34 35 30 255 0.245243 
4.648605 -8.76207 -2.265152 0.08560147 0.9824297 0.1658442 31 32 28 255 0.234501 
4.648239 -8.761368 -2.254349 0.002226524 0.9836715 0.1799598 30 31 27 255 0.227909 
4.65065 -8.765854 -2.245102 0.1505147 0.879721 0.4510391 27 28 25 255 0.248417 
4.654922 -8.773941 -2.236801 0.09027911 0.7817063 0.6170778 35 37 33 255 0.276982 
4.658859 -8.781387 -2.228165 0.0622458 0.6712514 0.7386116 38 40 36 255 0.273075 
4.665054 -8.793015 -2.220749 0.04182985 0.472184 0.8805071 35 36 32 255 0.227665 
4.677017 -8.815598 -2.21608 0.0540038 0.2536961 0.9657753 34 35 31 255 0.234012 
4.699051 -8.857162 -2.215927 0.04244694 0.05223773 0.9977322 30 31 27 255 0.221561 
4.715164 -8.887527 -2.213058 0.0459856 0.1101727 0.9928481 31 32 29 255 0.19202 
4.728165 -8.912003 -2.208664 0.03460645 0.1939228 0.9804063 9 9 8 255 0.180301 
4.745651 -8.944962 -2.206131 0.01329778 0.01734838 0.999761 14 14 13 255 0.196414 
4.785355 -9.019821 -2.213882 0.07352551 -0.01176006 0.997224 15 15 14 255 0.153201 
4.788742 -9.026199 -2.204758 0.07352551 -0.01176003 0.997224 11 11 10 255 0.188357 
4.836533 -9.116287 -2.215958 0.0464549 0.0544894 0.9974332 10 10 10 255 0.166384 
4.856369 -9.153671 -2.214127 0.003248378 0.09862199 0.9951197 12 12 11 255 0.182498 
4.88649 -9.210464 -2.217056 -0.1181262 0.2447964 0.9623517 13 13 12 255 0.187625 
4.888107 -9.213486 -2.206863 -0.0335034 0.157065 0.9870198 10 10 9 255 0.194705 
4.91835 -9.270523 -2.209488 0.00915256 0.164409 0.9863498 9 9 9 255 0.171511 
4.927017 -9.286819 -2.202377 -0.0550737 0.1092547 0.992487 7 7 7 255 0.172488 
4.954117 -9.337936 -2.203568 -0.04499367 -0.04237802 0.9980881 8 8 8 255 0.190066 
4.978683 -9.384262 -2.203323 -0.06443986 -0.05001192 0.9966676 7 7 7 255 0.18323 
5.016373 -9.455276 -2.208755 -0.06493142 0.1360244 0.9885754 9 9 8 255 0.195193 
5.032303 -9.485336 -2.204575 -0.03355103 0.1294547 0.9910176 8 8 7 255 0.190311 
5.061356 -9.540085 -2.206131 0.04157868 -0.008572871 0.9990985 7 7 7 255 0.174441 
5.069565 -9.555557 -2.198349 0.02633736 0.01262165 0.9995735 4 4 3 255 0.183719 
5.106491 -9.625137 -2.203018 0.02561603 0.05819971 0.9979762 4 4 4 255 0.18201 
5.134872 -9.678635 -2.204056 0.08188152 -0.05140118 0.9953157 5 5 5 255 0.202029 
5.172806 -9.750168 -2.208847 0.04300343 0.05264591 0.9976869 4 4 4 255 0.188846 
5.21492 -9.829544 -2.215164 -0.02825518 0.06789132 0.9972926 3 3 3 255 0.171511 
5.235794 -9.868912 -2.212509 0.02416656 0.07658145 0.9967704 2 2 2 255 0.171267 
5.251541 -9.898605 -2.207535 0.06762466 0.1068654 0.9919711 2 2 2 255 0.187137 
5.281784 -9.955582 -2.208542 0.113681 0.0636362 0.9914773 1 1 1 255 0.172732 
5.304245 -9.99794 -2.206192 0.04290137 0.1159836 0.9923242 1 1 1 255 0.182742 
5.327194 -10.04118 -2.203934 0.04387213 0.03838152 0.9982997 1 1 1 255 0.180056 
5.353378 -10.09056 -2.202896 0.008393288 0.0414535 0.9991053 1 1 1 255 0.175906 
5.382828 -10.14607 -2.20311 0.01746047 0.009124359 0.9998059 1 1 1 255 0.17322 
5.407822 -10.19316 -2.20137 -0.0390214 0.1527955 0.9874871 1 1 1 255 0.171511 
5.428299 -10.23174 -2.197708 0.03662133 0.0568976 0.9977081 1 1 1 255 0.183963 
5.450455 -10.27351 -2.194626 -0.05845824 0.1097001 0.9922442 1 1 1 255 0.178103 
5.469254 -10.30898 -2.190018 0.004829453 0.08431516 0.9964275 1 1 1 255 0.180301 
5.494125 -10.35585 -2.187851 -0.03447969 0.1250589 0.99155 1 1 1 255 0.176883 
5.522934 -10.41017 -2.187027 0.0006172569 0.01475137 0.999891 1 1 1 255 0.177127 
5.544785 -10.45134 -2.183334 0.004781981 0.04493482 0.9989785 1 1 1 255 0.171267 
5.566727 -10.49272 -2.179794 -0.03627311 0.2160153 0.9757159 1 1 1 255 0.185916 
5.576859 -10.51183 -2.171463 -0.05363896 0.2618071 0.9636285 1 1 1 255 0.186404 
5.593521 -10.54323 -2.165604 0.09258139 0.1445661 0.9851546 1 1 1 255 0.191287 
5.636063 -10.62343 -2.169876 0.02748147 0.1533397 0.9877913 1 1 1 255 0.179568 
5.648575 -10.64699 -2.162247 0.08898315 0.1631278 0.982584 1 1 1 255 0.170291 
5.683365 -10.7126 -2.16304 0.05193617 0.1560865 0.986377 1 1 1 255 0.166384 
5.704544 -10.75252 -2.158554 -0.1256656 0.2554799 0.9586126 1 1 1 255 0.155886 
5.712875 -10.76823 -2.149033 -0.01308066 0.1809244 0.98341 1 1 1 255 0.174441 
5.7379 -10.81538 -2.145828 0.07060474 0.1540378 0.9855392 1 1 1 255 0.178103 
5.756241 -10.84999 -2.14003 0.06193705 0.1904881 0.9797336 1 1 1 255 0.171511 
5.776749 -10.88863 -2.134933 0.09735926 0.1636804 0.9816974 1 1 1 255 0.168826 
5.798843 -10.93025 -2.130356 -0.05547876 0.2577458 0.9646187 1 1 1 255 0.18323 
5.816299 -10.96318 -2.124008 -0.1865488 0.3186129 0.9293467 1 1 1 255 0.171511 
5.822464 -10.97484 -2.11348 -0.1434574 0.1790449 0.9733257 1 1 1 255 0.172488 
5.858322 -11.0424 -2.113632 0.06061792 0.1788526 0.9820067 1 1 1 255 0.187137 
5.877792 -11.07915 -2.107742 0.04927306 0.2185362 0.974584 1 1 1 255 0.180056 
3.61409 -6.828384 -2.232285 0.05694735 -0.0006818678 0.998377 71 75 60 255 0.186892 
3.630173 -6.858749 -2.23381 0.05954876 -0.04285844 0.9973049 53 60 44 255 0.198367 
3.645279 -6.887283 -2.234665 0.05714702 -0.01396152 0.9982682 80 89 70 255 0.18323 
3.662216 -6.919327 -2.236649 0.06551621 -0.01655382 0.9977142 73 85 65 255 0.183963 
3.677017 -6.94725 -2.237167 0.06995093 -0.0228461 0.9972889 52 63 46 255 0.186892 
3.696487 -6.984085 -2.240555 0.06212225 -0.01231128 0.9979926 57 68 51 255 0.196902 
3.712173 -7.013687 -2.24144 0.08125862 -0.02505478 0.9963781 58 69 52 255 0.183963 
3.730576 -7.048477 -2.243942 0.07400265 -0.007866789 0.997227 65 76 59 255 0.183719 
3.745499 -7.076645 -2.244308 0.05995923 0.004032581 0.9981927 55 67 47 255 0.188357 
3.763138 -7.110001 -2.246231 0.07137129 -0.01534753 0.9973317 58 69 52 255 0.195193 
3.779282 -7.140457 -2.247086 0.06826477 -0.02492066 0.997356 63 74 58 255 0.179568 
3.797165 -7.174271 -2.249039 0.05704565 -0.009533596 0.9983261 53 61 46 255 0.187625 
3.817032 -7.211838 -2.251968 0.06853548 0.006367244 0.9976284 49 58 41 255 0.196902 
3.830643 -7.237534 -2.251175 0.04719573 0.02813645 0.9984894 135 148 130 255 0.319951 
3.847977 -7.270309 -2.252579 0.07027856 -0.007943089 0.9974958 125 151 116 255 0.236454 
3.865738 -7.303696 -2.254074 0.08434528 -0.008296498 0.9964021 130 161 120 255 0.275029 
3.885117 -7.340256 -2.256363 0.06569412 -0.02338597 0.9975657 135 163 125 255 0.242802 
3.901688 -7.371628 -2.257065 0.0575521 -0.03086531 0.9978653 130 157 122 255 0.266972 
3.922043 -7.410049 -2.259933 0.0521175 -0.02075225 0.9984253 143 165 129 255 0.212772 
3.940964 -7.445816 -2.261765 0.04782436 -0.02079585 0.9986393 153 181 141 255 0.198367 
3.959183 -7.480392 -2.263016 0.07039613 -0.02573248 0.9971872 114 149 107 255 0.202518 
3.979782 -7.519302 -2.265671 0.06019884 -0.008811559 0.9981475 148 176 138 255 0.224735 
3.999496 -7.556564 -2.267746 0.06094543 -0.04997175 0.9968894 142 170 132 255 0.206912 
4.017532 -7.590683 -2.268784 0.05761569 -0.02012383 0.998136 156 182 143 255 0.217899 
4.038254 -7.629807 -2.271317 0.06173912 -0.02145318 0.9978617 135 163 123 255 0.207889 
4.059921 -7.670578 -2.274307 0.03487583 -0.02625474 0.9990468 140 171 130 255 0.215213 
4.079117 -7.706833 -2.275711 0.04965438 -0.03651136 0.9980989 123 149 110 255 0.229129 
4.099075 -7.744553 -2.277512 0.06508098 -0.01337844 0.9977903 135 159 122 255 0.241581 
4.122147 -7.788132 -2.280869 0.06734435 -0.02995851 0.9972799 137 159 126 255 0.251102 
4.142441 -7.826492 -2.2827 0.06337488 -0.02050568 0.9977791 126 151 115 255 0.218387 
